5.108810 -3.134171 15.929031
5.106979 -3.137924 15.921280
5.098007 -3.140091 15.917709
5.124039 -3.135330 15.935226
5.115250 -3.136093 15.925369
5.127823 -3.128464 15.920151
5.104263 -3.108780 15.955338
5.101456 -3.120499 15.923782
5.111130 -3.096024 15.953293
5.103928 -3.101120 15.948349
5.120529 -3.096542 15.952866
5.111893 -3.098770 15.949814
5.106644 -3.078995 15.968491
5.123123 -3.085739 15.966507
5.116531 -3.090500 15.964493
5.126419 -3.045853 15.994431
5.146194 -3.064499 15.990219
5.125839 -3.102585 15.962906
5.139877 -3.113754 15.942703
5.129166 -3.094833 15.958389
5.154129 -3.099655 15.961960
5.137680 -3.092880 15.962753
5.135330 -3.075974 15.981064
5.146500 -3.091599 15.970840
5.148483 -3.067886 15.979691
5.181015 -3.073135 15.998337
5.167831 -3.085922 15.980911
5.136520 -3.057816 15.990524
5.134262 -3.055649 15.988693
5.126053 -3.058121 15.986862
5.150894 -3.051254 15.995041
5.142319 -3.052902 15.988724
5.157120 -3.052597 15.999130
5.994919 -3.390060 15.939957
5.740280 -3.496078 15.737717
5.746201 -3.480911 15.731125
5.741287 -3.467789 15.745926
5.771622 -3.476120 15.747391
5.968063 -3.415024 15.919022
5.760635 -3.410019 15.784500
5.751450 -3.465103 15.753708
5.783951 -3.462967 15.770645
5.750565 -3.424301 15.781296
5.758987 -3.375168 15.804123
5.780533 -3.383133 15.792770
5.796951 -3.396011 15.806778
5.938736 -3.448166 15.862595
5.905167 -3.495560 15.847122
5.918808 -3.484116 15.860794
5.930557 -3.470963 15.868851
5.926346 -3.473343 15.868393
5.813950 -3.277206 15.864792
5.787613 -3.333206 15.847855
5.750473 -3.357803 15.837753
5.777176 -3.334579 15.833359
5.770432 -3.338638 15.830002
5.795364 -3.326889 15.838943
5.781876 -3.325180 15.837540
5.810257 -3.328140 15.844528
5.774063 -3.294785 15.872330
5.795303 -3.283707 15.852982
5.792862 -3.312393 15.845047
5.801224 -3.297867 15.845230
5.786484 -3.287399 15.849960
5.796158 -3.262924 15.870712
5.804428 -3.279739 15.855698
5.805832 -3.273727 15.869766
5.826462 -3.269485 15.856918
5.977890 -3.424942 15.917709
5.973038 -3.444839 15.915421
5.950699 -3.450363 15.898453
5.944565 -3.458908 15.882767
5.951340 -3.448685 15.887985
5.961624 -3.445755 15.897018
5.956589 -3.446396 15.892227
5.983475 -3.450851 15.894455
5.996689 -3.439804 15.913223
5.839615 -3.257614 15.876511
5.813766 -3.167648 15.938065
5.856125 -3.131271 15.938034
5.796036 -3.235397 15.909317
5.799881 -3.222824 15.892746
5.806107 -3.240860 15.890213
5.823532 -3.190536 15.914139
5.822739 -3.230759 15.885300
5.824570 -3.238510 15.888992
5.814407 -3.235123 15.885056
5.815933 -3.227463 15.887283
5.853683 -3.245712 15.895615
5.827408 -3.197952 15.895340
5.833328 -3.193436 15.912125
5.840134 -3.181412 15.913467
5.826126 -3.181381 15.905380
5.830795 -3.184525 15.906174
5.838425 -3.138504 15.928452
5.847397 -3.135178 15.934525
5.853317 -3.049271 15.986588
5.834976 -3.105209 15.972305
5.853775 -3.102982 15.952835
5.874680 -3.071396 15.964645
5.864548 -3.085129 15.958389
5.844620 -3.064438 15.989059
5.868851 -3.038681 15.980179
5.860794 -3.043076 15.979202
5.864029 -3.057846 15.974197
5.874954 -3.013077 15.995163
5.865372 -3.010422 15.990524
5.878036 -3.035507 15.988388
5.902328 -3.046066 15.990707
5.886856 -3.053635 15.982986
4.927902 -2.759506 15.685654
4.486160 -2.876205 15.326157
4.454544 -2.986099 15.249588
4.487167 -2.883408 15.322006
4.483719 -2.912338 15.303482
4.446518 -2.987717 15.251968
4.451920 -2.996292 15.252945
4.462448 -2.986099 15.255173
4.473129 -2.948624 15.275925
4.491531 -2.911850 15.307388
4.475235 -2.927414 15.294418
4.482010 -2.845688 15.374069
4.493607 -2.874466 15.323288
4.602463 -2.750168 15.410446
4.593643 -2.782089 15.404099
4.540604 -2.831558 15.350479
4.533005 -2.831894 15.345291
4.517288 -2.873947 15.340775
4.508713 -2.871536 15.320602
4.548508 -2.831802 15.359207
4.572311 -2.790970 15.380325
4.564804 -2.791763 15.376846
4.579666 -2.790115 15.383163
4.587784 -2.767044 15.397873
4.608963 -2.735794 15.423080
4.617172 -2.748489 15.417831
4.609756 -2.748703 15.410629
4.624222 -2.709305 15.433823
4.651566 -2.659561 15.477829
4.639420 -2.708054 15.444901
4.631668 -2.708908 15.440506
4.647110 -2.707504 15.451279
4.667648 -2.667221 15.479996
4.653030 -2.668106 15.466476
4.660385 -2.667984 15.475082
4.671188 -2.639511 15.498520
4.661423 -2.649673 15.488419
4.687790 -2.626114 15.505997
4.680984 -2.629929 15.509567
4.681137 -2.627884 15.506973
4.747147 -2.540482 15.574875
4.708328 -2.598801 15.534836
4.698471 -2.609360 15.524734
4.690506 -2.619980 15.519547
4.740219 -2.542313 15.574570
4.759750 -2.502457 15.624222
4.752121 -2.504532 15.614914
4.951889 -2.265488 15.846970
4.856796 -2.399338 15.675674
4.842178 -2.400253 15.652786
4.779861 -2.499649 15.632095
4.808945 -2.452133 15.649185
4.822006 -2.448563 15.651840
4.815598 -2.450912 15.653915
4.851822 -2.442337 15.631729
4.869400 -2.353897 15.682327
4.863297 -2.356430 15.685257
4.929642 -2.274521 15.838974
4.915298 -2.299606 15.784195
4.905197 -2.312546 15.765152
4.878952 -2.331650 15.751389
4.910934 -2.309494 15.759323
4.942673 -2.201859 15.970139
4.954758 -2.234360 15.929733
4.975784 -2.231766 15.916428
4.942184 -2.249344 15.898941
5.867508 -2.981491 15.998215
5.873123 -2.991287 15.993942
5.874802 -2.997330 15.996445
5.865280 -2.995651 15.993057
5.882919 -2.983109 15.998337
5.881607 -2.987442 15.998367
6.463669 -3.757065 15.891190
6.408066 -3.753311 15.899490
6.249710 -3.891190 15.697464
6.122849 -3.975357 15.569870
6.054977 -3.997269 15.533340
6.089218 -3.986832 15.553238
6.078415 -3.991592 15.551346
6.066910 -3.994827 15.543869
6.100510 -3.983200 15.559341
6.111496 -3.979202 15.564011
6.110397 -3.939041 15.567032
6.193893 -3.908707 15.624496
6.180862 -3.978378 15.597061
6.139633 -3.977249 15.587143
6.134262 -3.971237 15.575027
6.168961 -3.990982 15.570999
6.145340 -3.967728 15.581558
6.167374 -3.959824 15.592178
6.156570 -3.963638 15.586777
6.169907 -3.951614 15.611832
6.179184 -3.956894 15.601944
6.183731 -3.939133 15.622330
6.194717 -3.972580 15.602554
6.190750 -3.952377 15.606735
6.209122 -3.967270 15.606369
6.221725 -3.958878 15.620377
6.230179 -3.913437 15.658096
6.247116 -3.942551 15.647171
6.234879 -3.951828 15.630203
6.248825 -3.891098 15.660141
6.196732 -3.928574 15.630539
6.217148 -3.902603 15.643814
6.205002 -3.904648 15.630203
6.228836 -3.899704 15.654282
6.220566 -3.902054 15.652298
6.240402 -3.896347 15.663193
6.236404 -3.842819 15.640366
6.339401 -3.885422 15.741928
6.272751 -3.923904 15.680801
6.287949 -3.920670 15.678818
6.261002 -3.937332 15.651535
6.252274 -3.893448 15.674149
6.313766 -3.834274 15.746750
6.252274 -3.845963 15.676865
6.307419 -3.848404 15.744919
6.267471 -3.847702 15.708084
6.293167 -3.855209 15.725357
6.284500 -3.874252 15.719223
6.307846 -3.841904 15.737289
6.352524 -3.875778 15.760117
6.370377 -3.782059 15.858322
6.318283 -3.828506 15.782700
6.365616 -3.868240 15.772415
6.337448 -3.828476 15.770340
6.326797 -3.832748 15.761673
6.324997 -3.830582 15.754990
6.348648 -3.824387 15.777634
6.345169 -3.821854 15.783127
6.359604 -3.820450 15.785019
6.351425 -3.783310 15.807877
6.373428 -3.795334 15.805771
6.357559 -3.808395 15.791031
6.374161 -3.775833 15.825912
6.362961 -3.780045 15.818649
6.449814 -3.766129 15.874313
6.393326 -3.854477 15.792740
6.379410 -3.861099 15.783279
6.422348 -3.782272 15.846207
6.391251 -3.783432 15.825516
6.408951 -3.792801 15.825180
6.398331 -3.768845 15.848648
6.419357 -3.759750 15.859482
6.435989 -3.773483 15.862289
6.461716 -3.694992 15.964645
6.490738 -3.739273 15.924850
6.467178 -3.704025 15.932693
6.476791 -3.749100 15.905655
6.455704 -3.707779 15.922134
6.445114 -3.712845 15.917557
6.529678 -3.690170 15.981277
6.545303 -3.708542 15.979477
6.517899 -3.723099 15.954269
6.504379 -3.730606 15.941116
6.531815 -3.715347 15.968063
6.019852 -3.382278 15.945816
6.008896 -3.395737 15.939041
6.004288 -3.400192 15.940079
6.011703 -3.434250 15.916702
6.074478 -3.311630 15.989578
6.029892 -3.335190 15.981308
6.022781 -3.364182 15.956985
6.030045 -3.368576 15.950912
6.044510 -3.357254 15.967331
6.018539 -3.337296 15.965744
6.056168 -3.320206 15.981857
6.054214 -3.342026 15.969894
6.047470 -3.325150 15.981583
6.076279 -3.314957 15.984543
6.065567 -3.316513 15.988205
6.067642 -3.329575 15.983200
6.087723 -3.343338 15.973465
6.102249 -3.334396 15.986710
6.087784 -3.301895 15.993454
6.092850 -3.302658 15.996170
6.083389 -3.306992 15.991623
6.078445 -3.312485 15.991531
6.704514 -2.550949 15.988846
6.450668 -8.017929 19.702621
6.457870 -8.110458 19.385483
6.507889 -8.115921 19.459396
6.557602 -8.099960 19.375931
6.602005 -8.136215 19.962265
1.896957 -4.137344 17.957840
1.908707 -4.122513 17.952866
1.938217 -4.178299 17.822250
1.942459 -4.168686 17.804459
1.968765 -4.182053 17.773392
1.976639 -4.193069 17.830246
1.884567 -4.151535 17.828934
1.894424 -4.146286 17.826218
3.961105 -5.003830 16.464890
3.987991 -5.017410 16.206589
3.985306 -5.050674 16.080795
3.992752 -5.095901 16.043991
3.999130 -5.078323 16.019516
3.999985 -5.082565 16.021774
3.998459 -5.061447 16.008102
3.995804 -5.081192 16.116318
3.995682 -5.080276 16.198868
3.988632 -5.074356 16.137253
3.999588 -5.034500 16.187424
3.994370 -5.041031 16.148148
3.986038 -5.028244 16.339859
3.999130 -5.009201 16.304520
3.990463 -5.021194 16.289719
3.984573 -5.033737 16.262619
3.993607 -5.032516 16.250931
3.967667 -5.027481 16.274765
3.992081 -5.031143 16.262680
3.938889 -5.412735 16.974075
3.942764 -5.000656 16.744644
3.944199 -5.013168 16.593002
3.967697 -5.007980 16.505692
3.950699 -5.002609 16.569321
3.977432 -5.022781 16.583359
3.941238 -5.013443 16.738358
3.936111 -5.019913 16.629288
3.964981 -5.017746 16.655197
3.959671 -5.388931 16.951797
3.998001 -5.413101 16.846176
3.985123 -5.397354 16.803024
3.990738 -5.395035 16.874771
3.997604 -5.376755 16.848129
3.950394 -5.395615 16.939682
3.958969 -5.379959 16.920486
3.965103 -5.377243 16.904709
3.984421 -5.398636 16.891891
2.759811 -4.504532 16.841904
2.792923 -4.513229 16.821457
2.953018 -4.539597 16.723587
2.942673 -4.547714 16.727219
2.932266 -4.551041 16.740250
2.913681 -4.531204 16.749710
2.975388 -4.539017 16.698380
2.994980 -4.553848 16.688187
2.995529 -4.559738 16.689468
2.803177 -4.504471 16.815048
2.837265 -4.534012 16.793015
2.808243 -4.520157 16.800735
2.805191 -4.505569 16.790817
2.826675 -4.507858 16.799667
2.839432 -4.522964 16.796951
2.898697 -4.531052 16.754013
2.910385 -4.522354 16.750870
2.618179 -4.462601 16.969986
2.693527 -4.459305 16.969528
2.743179 -4.479233 16.861252
2.639816 -4.480118 16.965225
2.668961 -4.476395 16.924881
2.681625 -4.470200 16.917099
2.710068 -4.480911 16.892471
2.699020 -4.494980 16.898758
2.694717 -4.487015 16.894913
2.651627 -4.484512 16.956100
2.660629 -4.474380 16.942734
2.813065 -4.495132 16.806473
2.803879 -4.490646 16.802261
3.006638 -4.545731 16.687057
3.249649 -4.580032 16.489487
3.273239 -4.573776 16.472153
3.468735 -4.575760 16.355606
3.430069 -4.599258 16.362717
3.419266 -4.605942 16.353745
3.404434 -4.578598 16.374039
3.466324 -4.588943 16.346298
3.495651 -4.601242 16.336655
3.471725 -4.584976 16.334671
3.292953 -4.580917 16.456802
3.339615 -4.602798 16.424911
3.371475 -4.598190 16.390945
3.361038 -4.575516 16.405563
3.353165 -4.579605 16.395767
3.373154 -4.574844 16.396927
3.348099 -4.578079 16.421402
3.344498 -4.591934 16.409744
3.296494 -4.583786 16.446823
3.399826 -4.595963 16.380508
3.410629 -4.587021 16.378342
3.985336 -4.997574 16.428818
3.599808 -4.514084 16.168533
3.700668 -4.632980 16.013992
3.675369 -4.631790 16.052017
3.702713 -4.638779 16.013962
3.689102 -4.634811 16.015091
3.712601 -4.631027 16.004410
3.650070 -4.536209 16.124985
3.703171 -4.602676 16.059555
3.697769 -4.621841 16.047012
3.718704 -4.619644 16.041855
3.665573 -4.596573 16.098770
3.679489 -4.598984 16.092056
3.684097 -4.602310 16.084824
3.680527 -4.606735 16.084427
3.666489 -4.617203 16.106003
3.641434 -4.572739 16.118637
3.654465 -4.567703 16.107956
3.669662 -4.569687 16.105423
3.658432 -4.568527 16.104477
3.681870 -4.568863 16.099228
3.700943 -4.599808 16.123367
3.714920 -4.606247 16.069321
3.666977 -4.559769 16.112473
3.621689 -4.503433 16.166153
3.609879 -4.511917 16.163986
3.615036 -4.539474 16.151871
3.665146 -4.573654 16.248642
3.673935 -4.601730 16.138657
3.652603 -4.587845 16.128311
3.638016 -4.531387 16.133255
3.631485 -4.538956 16.132858
3.650162 -4.530441 16.126205
3.642593 -4.529465 16.131546
3.651321 -4.589035 16.217300
3.642197 -4.569412 16.192398
3.600754 -4.557114 16.394424
3.612900 -4.533524 16.319992
3.565079 -4.573380 16.308975
3.585526 -4.577988 16.262253
3.601181 -4.566971 16.273514
3.613144 -4.562515 16.253525
3.615463 -4.585922 16.280197
3.577042 -4.572891 16.303085
3.589005 -4.572342 16.296890
3.600845 -4.577621 16.289322
3.601181 -4.572800 16.282272
3.514511 -4.595108 16.338638
3.529282 -4.574875 16.327652
3.541397 -4.574326 16.321060
3.534958 -4.584213 16.322861
3.547043 -4.583481 16.312759
3.553024 -4.575119 16.319595
3.631973 -4.547134 16.268845
3.641830 -4.570145 16.270798
3.626480 -4.586990 16.275986
3.649643 -4.559494 16.255875
3.334213 -4.284653 16.497147
3.345627 -4.285324 16.492783
3.450089 -4.413803 16.339432
3.491409 -4.410843 16.287491
3.431107 -4.390732 16.350723
3.488388 -4.409103 16.336899
3.466599 -4.395187 16.341934
3.478348 -4.393875 16.331619
3.477798 -4.393234 16.318039
3.489761 -4.391739 16.318436
3.448349 -4.353958 16.361252
3.414169 -4.365982 16.366074
3.357040 -4.284805 16.484146
3.358871 -4.344955 16.445358
3.368149 -4.281723 16.465836
3.470932 -4.356918 16.387192
3.411850 -4.338058 16.407394
3.406967 -4.354752 16.385391
3.426254 -4.357498 16.385666
3.399338 -4.334976 16.391098
3.562729 -4.411423 16.443893
3.566238 -4.457352 16.225357
3.587204 -4.483566 16.190689
3.582870 -4.496567 16.183182
3.606339 -4.496078 16.173355
3.624405 -4.499252 16.162766
3.594650 -4.495438 16.174850
3.617874 -4.497208 16.173691
3.553452 -4.465469 16.220718
3.583786 -4.485733 16.202805
3.582962 -4.485214 16.187973
3.600296 -4.476822 16.198898
3.574936 -4.459091 16.208633
3.566177 -4.458633 16.204788
3.586563 -4.459976 16.207687
3.560745 -4.401047 16.489853
3.591782 -4.444138 16.372849
3.522659 -4.449966 16.262100
3.528671 -4.446701 16.255173
3.529312 -4.457657 16.264694
3.619980 -4.489304 16.304276
3.612991 -4.495834 16.294327
3.526474 -4.421738 16.294083
3.531937 -4.426224 16.265457
3.544083 -4.424149 16.252853
3.555527 -4.428726 16.265396
3.582230 -4.462418 16.360580
3.611954 -4.452133 16.331833
3.600052 -4.457657 16.356491
3.603653 -4.467575 16.351608
3.549210 -4.398727 16.485733
3.575180 -4.423569 16.429672
3.580826 -4.427414 16.408035
3.040176 -4.545303 16.652634
3.060013 -4.565933 16.643784
3.100571 -4.574844 16.605942
3.164719 -4.558548 16.566910
3.199173 -4.583542 16.548752
3.207047 -4.570328 16.530106
3.230057 -4.570572 16.506790
3.245895 -4.566452 16.507309
3.204544 -4.576767 16.535812
3.167557 -4.561966 16.555710
3.216660 -4.558975 16.518936
3.144089 -4.577774 16.579208
3.154434 -4.568497 16.573898
3.164871 -4.563034 16.576706
3.289597 -4.538040 16.507858
3.911819 -4.957230 16.971970
3.972977 -4.952805 16.728561
3.968063 -4.974197 16.591782
3.965073 -4.987015 16.526138
3.983749 -4.988602 16.501328
3.982803 -4.981705 16.576035
3.985916 -4.978592 16.576584
3.939255 -4.971970 16.690292
3.940720 -4.998306 16.660751
3.966934 -4.971390 16.641434
3.971359 -4.960159 16.656448
3.957779 -4.967484 16.717026
3.930618 -4.955795 16.946030
3.927505 -4.985641 16.855209
3.934128 -4.969650 16.797897
3.928177 -4.972733 16.759750
3.930283 -4.982559 16.764725
3.935013 -4.971024 16.797256
3.954727 -4.965561 16.799423
3.973740 -4.949051 16.804855
3.931015 -4.956009 16.867447
3.933273 -4.951523 16.817398
3.979660 -4.924240 16.902756
3.924362 -4.942215 16.905167
3.934677 -4.945236 16.891464
3.927322 -4.961288 16.892746
3.143631 -4.138718 16.915329
3.258835 -4.260605 16.625595
3.266190 -4.257645 16.614792
3.310989 -4.262466 16.555313
3.295914 -4.274673 16.528976
3.295181 -4.279984 16.554489
3.310287 -4.269882 16.542130
3.299637 -4.278854 16.543961
3.317459 -4.251450 16.551407
3.322342 -4.287674 16.516068
3.318924 -4.264908 16.545700
3.286545 -4.254227 16.594925
3.271133 -4.254471 16.593399
3.278305 -4.253525 16.572830
3.278702 -4.251663 16.579910
3.282578 -4.253586 16.582260
3.278061 -4.257614 16.628555
3.192062 -4.223129 16.725449
3.247665 -4.232529 16.616959
3.216751 -4.198318 16.746872
3.248398 -4.224503 16.683701
3.222427 -4.231308 16.646378
3.248093 -4.245682 16.650772
3.235458 -4.231216 16.677078
3.243088 -4.224472 16.670944
3.171494 -4.200638 16.736069
3.216324 -4.192123 16.740616
3.202347 -4.208054 16.743881
3.254501 -4.222488 16.655106
3.253067 -4.243210 16.643051
3.260147 -4.227585 16.628494
3.266190 -4.218460 16.631149
3.143814 -4.138351 16.888138
3.195908 -4.156998 16.838333
3.204849 -4.192978 16.752579
3.186417 -4.173233 16.788101
3.195541 -4.164536 16.783737
3.214005 -4.186691 16.756638
3.190018 -4.150650 16.775772
3.201706 -4.151627 16.770462
3.211777 -4.157822 16.787491
3.172379 -4.146744 16.867050
3.177383 -4.160843 16.826523
3.173141 -4.155838 16.866776
3.112808 -4.098343 16.997299
3.124710 -4.097733 16.984268
3.086075 -4.118332 16.960617
3.569138 -4.256668 16.971909
3.570511 -4.329361 16.723984
3.574966 -4.380478 16.574905
3.544785 -4.386734 16.551620
3.555069 -4.393234 16.512314
3.540329 -4.379288 16.584305
3.552444 -4.375992 16.566727
3.574234 -4.378128 16.566208
3.564133 -4.374313 16.555588
3.581375 -4.332352 16.731308
3.567673 -4.347366 16.650192
3.578293 -4.354416 16.644699
3.552383 -4.342148 16.730698
3.574997 -4.269211 16.965317
3.573593 -4.308945 16.818619
3.550491 -4.332077 16.802658
3.560959 -4.312393 16.848679
3.557388 -4.259323 16.987656
3.553574 -4.285599 16.913925
3.576889 -4.285019 16.901138
3.565506 -4.284744 16.904831
3.573013 -4.297806 16.895615
3.552231 -4.258682 16.991837
3.546982 -5.527847 17.900345
3.707321 -5.397720 17.481857
3.825485 -5.407883 17.228836
3.882828 -5.388077 17.101730
3.913956 -5.401535 17.022537
3.935562 -5.379471 17.012589
3.909470 -5.399765 17.015549
3.923508 -5.387253 17.007339
3.907242 -5.414322 17.085648
3.832535 -5.403854 17.229599
3.859268 -5.415298 17.142685
3.868759 -5.446945 17.200180
3.888412 -5.445938 17.159378
3.698044 -5.430954 17.459122
3.741440 -5.418564 17.445786
3.749924 -5.416824 17.422440
3.737045 -5.421799 17.428696
3.743698 -5.419510 17.420547
3.725021 -5.399124 17.426437
3.749100 -5.452927 17.451981
3.736099 -5.424515 17.450027
3.763901 -5.409683 17.396713
3.777908 -5.413010 17.356674
3.827164 -5.447678 17.290451
3.797653 -5.401016 17.297348
3.817123 -5.421707 17.292191
3.807602 -5.448807 17.331161
3.789597 -5.400803 17.348007
3.767685 -5.436050 17.322067
3.778976 -5.404037 17.375778
3.768173 -5.450790 17.414352
3.782394 -5.444290 17.398087
3.878464 -5.029709 17.489517
3.875198 -5.007065 17.461014
3.886612 -5.013504 17.467880
3.531570 -5.393265 17.876511
3.591660 -5.401688 17.723312
3.652725 -5.406906 17.566818
3.709244 -5.454819 17.537003
3.654099 -5.407516 17.557693
3.667984 -5.423965 17.539780
3.666977 -5.397263 17.554214
3.674789 -5.397568 17.545181
3.681351 -5.400436 17.539017
3.678970 -5.385757 17.546829
3.667374 -5.403702 17.552902
3.697403 -5.408493 17.509171
3.702835 -5.402420 17.509109
3.672623 -5.415878 17.568497
3.602402 -5.389175 17.711105
3.613663 -5.389999 17.679947
3.615891 -5.393387 17.684158
3.599960 -5.395493 17.701859
3.627243 -5.382950 17.653000
3.629959 -5.400955 17.642319
3.646500 -5.405441 17.628830
3.855026 -5.016953 17.602066
3.855087 -5.024429 17.576248
3.860184 -5.005966 17.544266
3.545914 -5.387924 17.854080
3.555862 -5.431259 17.832901
3.574509 -5.377182 17.809616
3.613510 -5.391647 17.772171
3.560165 -5.380234 17.824020
3.842789 -5.011002 17.769150
2.167526 -4.309128 17.481522
2.402756 -4.389725 17.222153
2.492752 -4.415054 17.112381
2.424942 -4.395096 17.227066
2.459549 -4.407394 17.180161
2.471024 -4.431442 17.154892
2.484268 -4.425949 17.130417
2.444809 -4.407730 17.170090
2.456161 -4.401749 17.171127
2.180099 -4.309219 17.463303
2.217087 -4.313187 17.438583
2.199417 -4.328476 17.429886
2.247543 -4.348495 17.392105
2.312241 -4.313950 17.440506
2.337296 -4.379166 17.310074
2.343338 -4.427750 17.279739
2.370590 -4.383347 17.265366
2.405319 -4.418289 17.250290
2.386948 -4.381729 17.269974
2.331223 -4.357101 17.315384
2.351639 -4.361374 17.280197
2.293869 -4.349869 17.348801
2.276627 -4.324203 17.370926
2.280930 -4.340836 17.347580
2.349167 -4.368362 17.313156
2.511887 -4.424973 17.154343
2.504990 -4.432144 17.111923
2.522598 -4.429703 17.086899
2.572739 -4.446762 17.050797
2.581680 -4.442276 17.026779
2.609970 -4.459915 17.007248
2.571671 -4.450424 17.033493
2.523270 -4.442673 17.086563
2.532730 -4.461838 17.077652
2.534348 -4.433792 17.093246
2.532425 -4.432480 17.072098
2.535690 -4.430466 17.074265
2.368576 -4.368881 17.923904
2.035172 -4.257553 17.629745
2.130508 -4.303940 17.518723
2.156204 -4.305008 17.501785
2.348526 -4.319473 17.781418
3.477676 -4.516953 17.964249
3.861984 -4.882614 17.381760
3.940231 -4.911148 17.202744
3.947159 -4.914352 17.122574
3.935928 -4.956650 17.038620
3.953995 -4.917526 17.042709
3.974289 -4.917587 17.009903
3.919968 -4.951981 17.122482
3.913620 -4.954697 17.075577
3.930222 -4.953873 17.119675
3.962906 -4.907120 17.099075
3.962631 -4.903122 17.091324
3.975876 -4.904251 17.088211
3.951492 -4.887894 17.196060
3.904373 -4.932266 17.187210
3.918839 -4.901962 17.146317
3.993393 -4.924149 17.147598
3.920853 -4.949844 17.197159
3.896225 -4.882278 17.247604
3.900070 -4.924667 17.198593
3.919022 -4.898361 17.229050
3.964371 -4.889389 17.200516
3.971237 -4.888870 17.209000
3.977463 -4.890976 17.205368
3.990280 -4.894547 17.217636
3.948959 -4.882431 17.482773
3.818283 -4.886459 17.364120
3.874283 -4.909012 17.292099
3.858932 -4.883041 17.309036
3.839462 -4.883011 17.357895
3.852768 -4.877762 17.337021
3.864944 -4.875381 17.326767
3.828873 -4.890182 17.354782
3.925064 -4.912857 17.327255
3.909409 -4.945145 17.272690
3.888168 -4.911484 17.286118
3.892349 -4.917068 17.268570
3.921310 -4.904007 17.270126
3.898514 -4.987442 17.365616
3.881271 -4.889908 17.314407
3.907089 -4.894058 17.338364
3.916733 -4.878738 17.463882
3.907120 -4.893326 17.421188
3.920242 -4.893784 17.393509
3.946579 -4.892685 17.410294
3.761093 -4.844467 17.478470
3.791000 -4.855698 17.436905
3.805344 -4.854568 17.391373
3.804581 -4.851334 17.418503
3.819443 -4.867691 17.423416
3.815781 -4.848770 17.407211
3.778763 -4.848160 17.471512
3.768631 -4.854446 17.455734
3.778458 -4.862015 17.462357
3.783585 -4.854996 17.472580
3.968002 -4.874649 17.484116
3.911819 -4.873947 17.483414
3.902390 -4.874008 17.466690
3.929977 -4.866959 17.458878
3.954971 -4.866684 17.455826
3.942581 -4.864792 17.449875
3.681747 -4.532333 17.288010
3.492752 -4.095261 17.482468
3.007645 -4.001694 17.212753
3.082443 -4.055649 17.099838
3.098312 -4.064194 17.059006
3.101486 -4.100204 17.014877
3.085495 -4.062119 17.059311
3.076462 -4.065536 17.084885
3.075455 -4.071121 17.063065
3.087479 -4.063583 17.066635
3.051437 -4.060989 17.103287
3.063156 -4.027298 17.130844
3.029678 -4.030991 17.177780
3.045425 -4.009323 17.151230
3.039871 -4.025314 17.140121
3.052414 -4.026627 17.138504
3.041428 -4.026596 17.149246
3.029984 -4.028671 17.169174
3.036148 -4.019058 17.158524
3.509140 -4.054184 17.496353
3.535172 -4.266434 17.068283
3.545914 -4.175003 17.207199
3.569778 -4.155228 17.113571
3.561142 -4.230759 17.054153
3.554184 -4.200974 17.121689
3.531204 -4.249466 17.134720
3.539841 -4.190384 17.149368
3.815598 -4.118423 17.030716
3.525436 -4.010025 17.496872
3.528305 -4.149796 17.302505
3.539688 -4.149216 17.294388
3.503922 -4.094284 17.472244
3.521713 -4.122299 17.384537
3.518021 -4.093918 17.480606
3.509079 -4.108047 17.441605
3.503220 -4.119217 17.443222
3.490341 -4.532242 17.927078
3.494034 -4.538773 17.918472
3.497360 -4.590988 17.864944
3.494400 -4.600601 17.840439
3.488480 -4.556961 17.917801
3.492569 -4.618637 17.888718
3.497940 -4.571121 17.887680
3.483780 -4.509537 17.931839
3.864212 -4.760880 17.957077
3.697586 -4.761703 17.633377
3.710526 -4.759903 17.623184
3.729965 -4.816147 17.555161
3.719986 -4.798599 17.588882
3.733170 -4.795151 17.572708
3.745377 -4.793411 17.563553
3.738754 -4.796799 17.567947
3.685501 -4.761703 17.636703
3.845779 -4.985153 17.704361
3.851608 -4.996597 17.595200
3.880020 -4.978500 17.613266
3.887894 -4.982040 17.532242
3.883224 -4.982224 17.531357
3.758072 -4.793137 17.559616
3.755600 -4.826126 17.507950
3.969376 -4.851944 17.573380
3.913986 -4.866013 17.536789
3.944138 -4.845047 17.549698
3.956467 -4.846268 17.553238
3.939499 -4.859238 17.540573
3.918655 -4.845322 17.620193
3.910355 -4.863846 17.590378
3.919388 -4.851669 17.576279
3.911911 -4.855362 17.612015
3.922165 -4.841721 17.602463
3.947189 -4.800308 17.734879
3.905136 -4.830215 17.673233
3.933182 -4.826126 17.655319
3.933517 -4.818497 17.679825
3.921066 -4.831406 17.676102
3.940872 -4.824631 17.662704
3.945633 -4.823288 17.643753
3.957901 -4.824142 17.646011
3.970779 -4.829086 17.663528
3.934769 -4.803635 17.748489
3.931015 -4.807907 17.694992
3.912552 -4.792801 17.727798
3.959396 -4.801926 17.740067
3.948593 -4.811630 17.691910
3.591080 -4.660446 17.733688
3.598679 -4.639450 17.740555
3.617783 -4.719406 17.683151
3.603867 -4.690994 17.706345
3.621506 -4.704086 17.705826
3.620926 -4.695541 17.701767
3.607010 -4.678665 17.705734
3.619095 -4.678421 17.700638
3.631546 -4.677139 17.691513
3.639664 -4.723892 17.686508
3.638107 -4.739273 17.677719
3.652573 -4.720901 17.671005
3.664322 -4.720505 17.665939
3.676010 -4.721115 17.664841
3.988205 -4.771774 17.986221
3.844528 -4.989578 17.795090
3.973648 -4.783463 17.849106
3.905258 -4.826248 17.755539
3.949997 -4.815201 17.757339
3.922745 -4.811813 17.780289
3.932877 -4.792435 17.763870
3.933121 -4.801743 17.760452
3.952560 -4.791214 17.797012
3.972183 -4.806259 17.755356
3.902847 -4.814560 17.830612
3.922318 -4.782272 17.869675
3.929001 -4.805313 17.874741
3.947617 -4.803604 17.832504
3.951981 -4.784622 17.821823
3.972336 -4.790909 17.832413
3.948715 -4.778458 17.831894
3.960892 -4.779587 17.835312
3.941360 -4.753128 17.943192
3.885788 -4.784164 17.935837
3.924454 -4.790787 17.880936
3.904160 -4.778214 17.901962
3.935074 -4.778824 17.886520
3.888962 -4.810837 17.934158
3.900284 -4.756271 17.934372
3.889206 -4.764175 17.910751
3.900894 -4.753403 17.908005
3.912796 -4.754379 17.925705
3.925735 -4.752151 17.915878
3.937851 -4.754074 17.922012
3.999191 -4.805191 17.880020
3.941666 -4.781143 17.897049
3.950058 -4.764023 17.876633
3.961624 -4.769699 17.895584
3.962357 -4.755539 17.925583
3.950211 -4.753433 17.918472
3.970139 -4.765335 17.916611
3.922684 -4.756271 17.943008
3.994370 -4.774399 17.966568
3.975082 -4.760605 17.944229
3.502762 -4.531693 17.919052
3.531845 -4.625778 17.819504
3.579514 -4.641800 17.795639
3.564865 -4.659775 17.773605
3.574081 -4.644455 17.769180
3.586411 -4.641281 17.752213
3.534439 -4.636826 17.812515
3.529861 -4.603195 17.864395
3.504166 -4.611099 17.853989
3.523575 -4.606461 17.841995
3.521591 -4.620346 17.841202
3.529312 -4.608749 17.833755
3.541946 -4.607773 17.824600
3.542252 -4.616501 17.816299
3.517319 -4.611282 17.848862
3.506699 -4.592789 17.844254
3.500259 -4.537613 17.910629
3.502304 -4.606918 17.881363
3.508957 -4.570389 17.879715
3.521957 -4.571793 17.879562
3.538254 -4.587631 17.883865
3.513748 -4.529922 17.906815
3.830673 -4.730759 17.995071
3.840469 -4.720200 17.988937
3.853043 -4.719162 17.982895
3.864120 -4.748306 17.959061
3.868729 -4.741806 17.971024
3.851608 -4.704819 17.999985
3.865982 -4.718277 17.977402
3.877762 -4.715103 17.963333
3.464523 -4.498978 17.975998
3.481125 -4.083511 17.616074
3.476822 -4.496078 17.988022
3.475174 -4.482468 17.976120
3.459854 -4.438736 17.994308
3.483780 -4.492081 17.961472
3.495224 -4.493362 17.960983
3.462509 -4.462387 17.995804
3.488724 -4.453445 17.996750
3.433273 -4.183334 17.934189
3.415176 -4.047806 17.852707
3.434586 -4.067612 17.804703
3.436172 -4.060165 17.788223
3.447189 -4.054398 17.770370
3.423782 -4.068741 17.816727
3.364395 -4.015518 17.952621
3.302322 -4.038010 17.972824
3.422348 -4.032150 17.980026
3.383041 -4.041458 17.935349
3.418381 -4.037216 17.890427
3.411911 -4.051773 17.948471
3.527145 -4.000687 17.515396
1.899124 -4.167557 18.173355
1.886429 -4.101364 18.030472
1.848831 -4.058151 18.246567
1.831955 -4.062607 18.186874
1.857773 -4.092392 18.143692
1.791428 -4.027267 18.185165
1.844803 -4.063766 18.212814
1.921982 -4.030380 18.143631
1.784836 -4.149399 18.403336
1.858505 -4.011429 18.333755
1.863937 -4.025681 18.302872
1.851425 -4.025131 18.279160
1.933731 -4.399460 19.352005
1.923019 -4.393112 19.346848
1.949631 -4.394028 19.304459
2.716293 -5.317398 18.989639
2.915359 -5.025314 18.669876
2.744583 -5.321030 18.975571
2.732498 -5.330063 18.983475
2.732040 -5.339798 18.972214
2.830612 -5.297958 18.909470
2.834335 -5.338791 18.850021
2.894394 -5.301224 18.857559
2.823929 -5.310043 18.895798
2.771866 -5.329880 18.912521
2.797592 -5.324509 18.897293
2.786575 -5.336044 18.913406
2.812576 -5.257126 18.896439
3.405197 -5.339371 18.766922
3.197250 -5.400925 18.463699
3.380936 -5.379501 18.217697
3.469620 -5.381851 18.082291
3.463486 -5.387924 18.046494
3.477951 -5.384781 18.030624
3.497391 -5.393021 18.022507
3.410172 -5.368546 18.168533
3.423294 -5.364731 18.150345
3.233902 -5.377762 18.425797
3.192459 -5.369003 18.493484
3.456375 -5.357803 18.456619
3.320786 -5.397934 18.307022
3.331558 -5.383896 18.288895
3.351761 -5.385971 18.252029
3.441940 -5.393234 18.306290
3.748367 -5.016251 18.171860
3.019577 -5.348465 18.646591
3.030991 -5.336929 18.633194
3.123581 -5.375076 18.559280
3.046616 -5.386276 18.555710
3.130783 -5.378281 18.595352
3.183517 -5.404861 18.528397
3.182632 -5.382828 18.513748
3.075974 -5.346878 18.608383
3.042587 -5.357407 18.547684
3.074570 -5.360794 18.550064
3.062485 -5.342850 18.602829
3.061966 -5.359695 18.582504
3.077621 -5.355392 18.594772
3.104599 -5.345932 18.587723
3.094437 -5.357193 18.584000
3.090164 -5.345871 18.596115
3.090866 -5.349228 18.598557
3.105606 -5.360825 18.604172
3.105148 -5.343307 18.604721
3.146805 -5.350296 18.578018
3.184738 -5.319138 18.548416
3.176254 -5.343338 18.537430
3.147324 -5.283401 18.547134
3.164017 -5.290817 18.558548
3.139053 -5.369034 18.566940
3.151901 -5.361191 18.566116
3.420212 -5.333328 18.739304
3.445541 -5.341446 18.579361
3.443344 -5.350662 18.530502
3.429703 -5.352341 18.623795
3.432632 -5.359695 18.571243
3.011063 -5.155167 18.639481
3.752426 -5.362991 18.943222
3.746445 -5.116196 18.611801
3.748032 -5.069656 18.553268
3.760483 -5.109055 18.599197
3.760483 -5.061813 18.546158
2.482620 -4.284439 18.883896
2.088699 -4.044754 18.317642
2.242569 -4.410538 18.078018
2.225174 -4.234482 18.135361
2.493637 -4.288162 18.883377
2.468277 -4.271042 18.894272
2.427933 -4.249161 18.939133
2.436539 -4.239120 18.921982
2.748367 -4.376785 18.919266
2.697678 -4.373489 18.721420
2.700455 -4.337051 18.725784
2.716415 -4.365372 18.702499
2.687576 -4.337692 18.708115
2.822250 -4.345779 18.701492
2.942490 -4.394363 18.564987
2.936661 -4.379837 18.550461
2.980759 -4.417831 18.538773
2.999100 -4.413620 18.521652
2.988754 -4.422318 18.526443
2.951736 -4.391251 18.540268
2.957474 -4.400375 18.541092
2.912949 -4.384903 18.592606
2.894791 -4.342453 18.608444
2.831680 -4.344864 18.687607
2.799088 -4.373001 18.680862
2.831192 -4.351761 18.664047
2.871628 -4.341995 18.631516
2.815659 -4.362381 18.671432
2.810501 -4.343613 18.705887
2.784805 -4.335403 18.692490
2.961960 -4.222275 18.670334
2.983200 -4.229538 18.679031
2.973526 -4.222794 18.660324
2.502213 -4.305099 18.878128
2.505875 -4.287460 18.863235
2.621445 -4.347794 18.767227
2.515060 -4.321396 18.870163
2.531479 -4.319016 18.814499
2.590439 -4.081070 18.977921
2.952652 -4.172379 18.905197
2.831131 -4.055618 18.751389
2.807785 -4.022171 18.788162
3.682358 -4.925674 18.991470
3.181778 -4.525070 18.361679
3.312973 -4.571579 18.212112
3.344345 -4.600784 18.094955
3.357010 -4.584915 18.103592
3.381943 -4.595322 18.083359
3.386734 -4.598923 18.053757
3.414291 -4.596664 18.018417
3.380447 -4.594620 18.075302
3.303757 -4.583054 18.224716
3.227097 -4.537277 18.297012
3.239517 -4.536118 18.283615
3.251999 -4.533371 18.263992
3.738297 -4.967819 18.484085
3.832870 -4.982101 18.248581
3.785629 -4.984207 18.079544
3.804184 -4.984512 18.060318
3.781631 -4.976059 18.235458
3.762527 -4.991592 18.167221
3.804794 -4.981400 18.144363
3.781876 -4.695877 18.094101
3.813095 -4.694016 18.054276
3.801376 -4.703384 18.053970
3.830276 -4.688461 18.054459
3.832138 -4.720352 18.024277
3.822433 -4.699966 18.044266
3.963852 -4.730637 18.014389
3.989029 -4.732559 18.020187
3.976303 -4.729752 18.010147
3.719681 -4.986496 18.380814
3.721420 -4.996536 18.301651
3.849258 -4.966232 18.380844
3.860855 -4.961227 18.365250
3.813766 -4.977615 18.308121
3.901352 -4.944901 18.468582
3.876114 -4.935165 18.434860
3.889053 -4.940353 18.452896
3.877274 -4.945694 18.437729
3.889145 -4.962936 18.443375
3.748489 -4.598740 18.377823
3.779648 -4.575363 18.387985
3.755600 -4.625534 18.316330
3.758041 -4.603348 18.350906
3.801224 -4.603897 18.301102
3.075485 -4.453812 18.437790
3.400589 -4.258743 18.241623
3.441299 -4.377823 18.106918
3.449509 -4.455154 18.038651
3.464798 -4.455093 18.015732
3.476822 -4.453873 18.004532
3.453110 -4.410446 18.058060
3.458115 -4.415390 18.053787
3.446609 -4.408005 18.031570
3.469986 -4.416367 18.051407
3.470322 -4.423996 18.045029
3.477280 -4.437057 18.036240
3.421890 -4.379745 18.119827
3.434525 -4.382828 18.122726
3.452164 -4.377518 18.099594
3.445084 -4.430435 18.081039
3.446823 -4.416092 18.062729
3.442825 -4.416855 18.064835
3.454422 -4.408249 18.065994
3.479630 -4.414139 18.083298
3.463120 -4.379959 18.103989
3.389206 -4.273514 18.235977
3.432266 -4.335464 18.159500
3.433853 -4.372787 18.127457
3.420670 -4.343185 18.155716
3.435715 -4.338821 18.148880
3.423447 -4.337997 18.152603
3.441574 -4.340805 18.166733
3.403244 -4.268570 18.246628
3.405716 -4.299454 18.205063
3.417709 -4.299362 18.197250
3.420151 -4.297592 18.201279
3.429153 -4.298965 18.188736
3.404892 -4.273270 18.249405
3.396439 -4.267776 18.240616
3.408951 -4.260666 18.248093
3.412064 -4.255844 18.221939
3.355179 -4.079880 18.174026
3.117294 -4.486893 18.401901
3.188095 -4.487747 18.324387
3.136612 -4.499832 18.383957
3.389328 -4.259537 18.252182
3.364548 -4.162582 18.383194
3.336136 -4.157242 18.372849
3.373489 -4.238937 18.284653
3.369919 -4.209732 18.310898
3.373825 -4.217636 18.291489
3.348373 -4.191177 18.338058
3.337357 -4.171127 18.368118
3.368790 -4.179489 18.341080
3.348312 -4.163040 18.369949
3.346817 -4.178818 18.353592
3.357559 -4.178818 18.345963
3.373672 -4.178574 18.349045
3.364548 -4.170670 18.358231
3.379929 -4.180649 18.338516
3.388077 -4.223160 18.307755
3.409195 -4.249619 18.278214
3.384537 -4.222824 18.306992
3.387375 -4.223495 18.296310
3.384171 -4.229660 18.282639
3.362076 -4.159500 18.390182
3.314713 -4.133987 18.401291
3.332352 -4.132919 18.405472
3.316086 -4.095627 18.441757
3.313156 -4.120407 18.425766
3.326279 -4.120316 18.411118
3.283157 -4.096786 18.473129
3.311630 -4.097061 18.459610
3.305038 -4.095871 18.451431
3.309830 -4.090836 18.439102
3.287003 -4.066574 18.498215
3.335373 -4.106308 18.442276
3.369827 -4.107620 18.455490
3.361374 -4.112411 18.448410
3.698044 -4.884750 18.911179
3.710495 -4.945938 18.698929
3.728012 -4.974136 18.603622
3.723099 -4.961716 18.561050
3.736923 -4.940048 18.669693
3.724625 -4.961258 18.658554
3.997299 -4.945999 18.736618
3.940506 -4.969498 18.616501
3.911057 -4.969345 18.540787
3.907913 -4.945389 18.509476
3.931870 -4.950058 18.601456
3.907272 -4.952621 18.578049
3.966171 -4.946152 18.662857
3.673752 -4.500015 18.739151
3.722397 -4.546616 18.597580
3.743698 -4.554276 18.527573
3.748703 -4.514603 18.530075
3.708755 -4.517746 18.609055
3.708054 -4.542068 18.583450
3.692429 -4.522903 18.668472
3.685196 -4.529160 18.652573
3.690475 -4.528641 18.670609
3.761337 -4.510483 18.528854
3.716019 -4.893631 18.883987
3.713913 -4.916550 18.865646
3.689926 -4.962479 18.774094
3.726425 -4.960892 18.756912
3.675003 -4.942368 18.857437
3.700119 -4.951065 18.821762
3.686874 -4.931778 18.853165
3.687027 -4.931381 18.842850
3.699448 -4.922409 18.853256
3.699692 -4.926895 18.821884
3.713089 -4.926620 18.817184
3.725754 -4.929153 18.823715
3.728592 -4.897354 18.895157
3.703751 -4.951279 18.923325
3.688065 -4.847946 18.964584
3.731613 -4.855087 18.926620
3.719131 -4.852036 18.917862
3.722183 -4.814407 18.968124
3.999374 -4.883713 18.997299
3.079575 -4.017563 18.755173
3.001205 -4.435654 18.533249
3.035721 -4.443497 18.503983
3.090927 -4.018112 18.745834
3.101089 -4.021286 18.749649
3.069778 -4.019424 18.640396
3.115677 -4.018417 18.704636
3.156723 -4.057175 18.693924
3.278305 -4.009872 18.588425
3.266434 -4.014877 18.562729
3.260025 -4.105698 18.532120
3.271194 -4.102798 18.509842
3.271622 -4.093216 18.508438
3.365952 -4.068161 18.501633
3.255783 -4.012405 18.560501
3.279526 -4.057114 18.519241
3.290787 -4.055710 18.503525
3.274460 -4.030533 18.549210
3.277115 -4.013016 18.544937
3.367813 -4.021317 18.556229
3.361343 -4.029556 18.553055
3.372635 -4.028641 18.540421
3.381180 -4.015457 18.570786
3.047470 -4.012863 18.768356
3.505875 -4.397385 18.995285
3.667923 -4.469925 18.744919
3.741867 -4.467422 18.601974
3.669296 -4.498703 18.715042
3.681747 -4.492538 18.684738
3.692978 -4.491531 18.676651
3.727646 -4.376389 18.683212
3.743851 -4.413956 18.649185
3.740860 -4.310593 18.733047
3.737625 -4.353897 18.707504
3.732040 -4.344254 18.699966
3.749496 -4.352249 18.696640
3.757767 -4.394577 18.663986
3.764175 -4.472061 18.572983
3.762650 -4.476639 18.576584
3.769852 -4.396988 18.671036
3.754745 -4.437790 18.638931
3.757919 -4.428543 18.643967
3.766983 -4.436539 18.630112
3.752640 -4.309494 18.724533
3.517380 -4.395035 18.978989
3.566299 -4.443314 18.872879
3.614426 -4.466019 18.808395
3.619705 -4.473526 18.773727
3.590530 -4.470322 18.836838
3.574600 -4.481766 18.827988
3.602341 -4.469894 18.829910
3.594559 -4.469315 18.835464
3.614700 -4.466782 18.837631
3.602005 -4.456467 18.817947
3.652390 -4.479477 18.786514
3.626144 -4.463547 18.792984
3.636429 -4.476334 18.770493
3.626816 -4.487198 18.778244
3.740402 -4.264359 18.797531
3.733139 -4.292221 18.753067
3.733170 -4.268082 18.766006
3.744064 -4.269058 18.766769
3.529587 -4.393051 18.964096
3.559952 -4.449417 18.883591
3.571579 -4.440720 18.885147
3.571609 -4.431625 18.893600
3.583542 -4.430283 18.882401
3.743149 -4.145432 18.879745
3.739822 -4.185654 18.838089
3.736465 -4.228134 18.807449
3.747452 -4.227951 18.803055
3.736099 -4.239029 18.801834
3.718674 -4.217880 18.805008
3.736465 -4.187881 18.859543
3.719589 -4.225937 18.815170
3.732925 -4.213181 18.824783
3.749741 -4.067795 18.978561
3.741806 -4.082718 18.964890
3.753891 -4.147202 18.884232
3.762802 -4.208054 18.833298
3.750778 -4.179947 18.808273
3.763718 -4.042770 18.998306
3.772537 -4.076340 18.976608
3.764755 -4.041061 18.990585
3.783524 -4.062057 18.992630
2.395981 -5.424118 19.675125
2.376205 -5.287460 19.315323
2.392776 -5.278244 19.294968
2.372787 -5.006943 19.373123
2.577591 -5.380112 19.284470
2.664627 -5.362137 19.144882
2.672562 -5.275772 19.077530
2.690628 -5.311447 19.037216
2.700943 -5.299606 19.018417
2.653976 -5.357651 19.098251
2.611771 -5.223099 19.177780
2.594040 -5.400955 19.250290
2.564896 -5.370926 19.264786
2.549271 -5.373215 19.287033
2.918411 -5.488022 19.453171
2.563980 -5.159439 19.267532
2.553818 -5.158463 19.259781
2.448929 -5.419632 19.557419
2.396530 -5.398697 19.553177
2.730270 -5.475723 19.627243
2.898972 -5.449448 19.629196
2.937088 -5.418686 19.586990
3.700485 -5.948074 19.510880
3.963638 -5.956589 19.331284
3.246780 -5.313980 19.499924
3.314682 -5.330276 19.184433
3.271927 -5.354813 19.478104
3.286636 -5.317337 19.369614
3.289261 -5.315353 19.302750
3.262283 -5.298904 19.436234
3.860580 -5.819290 19.588608
3.174942 -5.297226 19.992111
3.145859 -5.304001 19.941818
3.169144 -5.289597 19.849716
3.185287 -5.278519 19.798416
3.199539 -5.290237 19.767685
3.884964 -5.276260 19.920639
3.987167 -5.137772 19.669205
2.183426 -4.645889 19.665024
2.335220 -4.964676 19.415909
2.349442 -4.963760 19.395493
2.384872 -4.993820 19.372086
2.455307 -4.902603 19.479660
2.428024 -4.988297 19.392075
2.452438 -4.999954 19.406540
2.440659 -4.995132 19.402420
2.467819 -4.998825 19.385147
2.452927 -4.956741 19.446762
2.449478 -4.878525 19.459976
2.315842 -4.849869 19.420944
2.304428 -4.646011 19.495255
2.832260 -4.923172 19.194778
2.966202 -4.835678 19.095932
2.148056 -4.087326 19.477280
2.259201 -4.368729 19.124741
2.272324 -4.369553 19.107925
2.272903 -4.112320 19.128983
2.408401 -4.180222 19.002121
2.657883 -4.346054 19.465622
2.626297 -4.306656 19.140213
2.638260 -4.390244 19.104324
2.607712 -4.142990 19.218643
2.602158 -4.232376 19.155228
2.639664 -4.315598 19.455063
2.654526 -4.368118 19.426743
2.816666 -4.938553 19.835709
3.546341 -4.789383 19.992050
3.616562 -4.937637 19.494339
3.678970 -4.907181 19.147720
3.718460 -4.764236 19.089584
3.692581 -4.798080 19.055984
3.714645 -4.797287 19.014816
3.725113 -4.783249 19.045334
3.712143 -4.781204 19.040726
3.972488 -4.820877 19.246719
3.999405 -4.883072 19.027298
3.987869 -4.859329 19.102554
3.992783 -4.830917 19.225357
3.995071 -4.857956 19.129105
3.989334 -4.830551 19.191208
3.701920 -4.668259 19.241776
3.701370 -4.675400 19.235825
3.686111 -4.708176 19.197617
3.615921 -4.948318 19.496048
3.672073 -4.885910 19.371170
3.683029 -4.892227 19.373062
3.697861 -4.884842 19.447037
3.679367 -4.938065 19.387253
3.642807 -4.924423 19.432358
3.656448 -4.917343 19.399643
3.629959 -4.931168 19.463760
3.652359 -4.927933 19.453781
3.981613 -4.782272 19.442886
3.986679 -4.806992 19.335007
3.978165 -4.803696 19.290268
3.989243 -4.810654 19.279984
3.990829 -4.802505 19.284531
3.992722 -4.784286 19.420059
3.688187 -4.517502 19.439438
3.713791 -4.631699 19.298965
3.692886 -4.620987 19.322342
3.662491 -4.531235 19.484665
3.683182 -4.556870 19.416946
3.696121 -4.549728 19.425552
3.663956 -4.525436 19.482956
3.675705 -4.521835 19.462814
3.670822 -4.518600 19.469345
3.310837 -4.257278 19.319107
3.373337 -4.283310 19.244675
3.443924 -4.350052 19.077621
3.475021 -4.374985 19.040298
3.455307 -4.341690 19.079453
3.354477 -4.280502 19.239090
3.349808 -4.286331 19.216110
3.395920 -4.301682 19.221298
3.382706 -4.339615 19.173294
3.435776 -4.321915 19.148544
3.426987 -4.330643 19.137619
3.429550 -4.325912 19.125565
3.414810 -4.335587 19.155899
3.424332 -4.321640 19.154312
3.392197 -4.339066 19.177383
3.402176 -4.320389 19.171432
3.406693 -4.328781 19.180771
3.426132 -4.327560 19.158371
3.383499 -4.317551 19.220963
3.391891 -4.306503 19.208664
3.380844 -4.309952 19.198288
3.367752 -4.275803 19.254990
3.145157 -4.157883 19.330673
3.134171 -4.152420 19.316391
3.167801 -4.195969 19.297287
3.143173 -4.111588 19.357376
3.258652 -4.162613 19.487411
3.320145 -4.222885 19.330521
3.312271 -4.233932 19.297501
3.323593 -4.235275 19.294937
3.298172 -4.212875 19.360184
3.326675 -4.236801 19.317856
3.262375 -4.157455 19.491409
3.283768 -4.223557 19.384018
3.274673 -4.202560 19.392532
3.284958 -4.199631 19.397659
3.269852 -4.160751 19.469193
3.747482 -4.030045 19.012802
3.763626 -4.025925 19.011246
3.774490 -4.025192 19.003983
3.559525 -4.782486 19.957199
3.567184 -4.936478 19.718277
3.603409 -4.945877 19.531967
3.656662 -4.880112 19.549362
3.693283 -4.858383 19.550949
3.687393 -4.854141 19.553207
3.620529 -4.959366 19.736221
3.580673 -4.929367 19.684372
3.669876 -4.795517 19.747787
3.678604 -4.822617 19.640335
3.689926 -4.831741 19.653519
3.690628 -4.823227 19.639023
3.974747 -4.760910 19.592331
3.994431 -4.760788 19.536392
3.992996 -4.770645 19.542374
3.971115 -4.776260 19.515457
3.981583 -4.731827 19.749405
3.958786 -4.744492 19.690140
3.996170 -4.736252 19.650772
3.991409 -4.743515 19.642288
3.555008 -4.780777 19.923965
3.558548 -4.937302 19.759262
3.727066 -4.798050 19.810226
3.687607 -4.804977 19.755295
3.738632 -4.806778 19.881882
3.814926 -4.811447 19.984177
3.773270 -4.831924 19.829514
3.766281 -4.848526 19.800400
3.997879 -4.678391 19.955154
3.999832 -4.691849 19.906631
3.019241 -4.209000 19.910294
3.193619 -4.048691 19.749130
3.230362 -4.100235 19.615311
3.223038 -4.112625 19.609451
3.232376 -4.103745 19.604935
3.246658 -4.115433 19.603134
3.204941 -4.048752 19.738144
3.167130 -4.080521 19.686325
3.168228 -4.092789 19.655533
3.176254 -4.073837 19.635818
3.186569 -4.078781 19.649124
3.190750 -4.099411 19.682144
3.190689 -4.110458 19.647263
3.229721 -4.105453 19.626236
3.197617 -4.081100 19.649307
3.210709 -4.088211 19.638748
3.218460 -4.084427 19.645370
3.207932 -4.082535 19.646347
3.229507 -4.083817 19.631882
3.241074 -4.085251 19.628098
3.202591 -4.104233 19.656418
3.192001 -4.074936 19.658646
3.173477 -4.060623 19.677017
3.126389 -4.039017 19.721359
3.146103 -4.058395 19.698074
3.226730 -4.044754 19.697739
3.254868 -4.128372 19.573288
3.271713 -4.174789 19.511154
3.250778 -4.121658 19.592178
3.065567 -4.186111 19.873276
3.068863 -4.018753 19.773453
3.083572 -4.025436 19.768204
3.076096 -4.008377 19.758347
3.181107 -4.006607 19.812729
3.191452 -4.007828 19.808212
3.193619 -4.045792 19.755356
3.582199 -4.379135 19.759384
3.571152 -4.384628 19.748489
3.613022 -4.446976 19.612991
3.616074 -4.438828 19.609207
3.623581 -4.460373 19.576462
3.624985 -4.445145 19.599625
3.644272 -4.483536 19.532791
3.656052 -4.480972 19.516739
3.589310 -4.379654 19.714157
3.605911 -4.404556 19.658249
3.594528 -4.404678 19.664047
3.575333 -4.366623 19.736313
3.572464 -4.366165 19.727554
3.575363 -4.311905 19.816086
3.551041 -4.288589 19.870621
3.563370 -4.318954 19.808273
3.568710 -4.316177 19.802505
3.569077 -4.324814 19.786575
3.580215 -4.325699 19.785110
3.574387 -4.278580 19.811081
3.561600 -4.285599 19.850967
3.549820 -4.207260 19.982529
3.579605 -4.233139 19.839951
3.581467 -4.204086 19.896225
3.544815 -4.243271 19.906998
3.556290 -4.246902 19.917801
3.584793 -4.189346 19.877060
3.605576 -4.104843 19.962692
6.136398 -5.711655 18.538956
5.444687 -7.764236 16.854233
5.495560 -7.839462 16.213577
5.470749 -7.821091 16.167923
5.326767 -7.850143 16.054245
5.326797 -7.857071 16.025772
5.374100 -7.850204 16.024063
5.392349 -7.846420 16.090347
5.389114 -7.846298 16.047256
5.423325 -7.832474 16.088669
5.410263 -7.832535 16.068466
5.430099 -7.832993 16.076126
5.689133 -7.830917 16.485916
5.544479 -7.860184 16.237656
5.508194 -7.848831 16.191330
5.505295 -7.855484 16.179062
5.501999 -7.862015 16.169601
5.511276 -7.842484 16.201523
5.685135 -7.836319 16.481949
5.591904 -7.846420 16.335312
5.546219 -7.853043 16.258316
5.561081 -7.829269 16.337845
5.589859 -7.853073 16.317429
5.595749 -7.840744 16.339981
5.674881 -7.855057 16.450485
5.636032 -7.847794 16.390518
5.632401 -7.853836 16.382706
5.639328 -7.841507 16.401016
5.680069 -7.850174 16.445053
5.645004 -7.821854 16.444077
5.683121 -7.843399 16.460007
5.210587 -7.273605 16.266800
5.213089 -7.275314 16.176437
5.186783 -7.273056 16.104355
5.332565 -7.275162 16.194534
5.332809 -7.308975 16.065811
5.370651 -7.322311 16.099258
5.325668 -7.313889 16.075180
5.328537 -7.294357 16.137619
5.311508 -7.312790 16.134781
5.437424 -7.125565 16.059677
5.288834 -7.368332 16.490524
5.253250 -7.320786 16.334427
5.260300 -7.315964 16.324326
5.273636 -7.341232 16.413528
5.264450 -7.190689 16.347824
5.382187 -7.239700 16.255630
5.521133 -7.164902 16.472122
5.450058 -7.758347 16.851425
5.449265 -7.656540 16.713638
5.361588 -7.514847 16.617722
5.383835 -7.555679 16.617569
5.443680 -7.662033 16.717575
5.439682 -7.668320 16.710953
5.426163 -7.624985 16.678268
5.352066 -7.512680 16.930923
5.462631 -7.749344 16.826248
5.459000 -7.695999 16.781906
5.376724 -7.535904 16.995743
5.825974 -7.806015 16.818497
5.737534 -7.820450 16.584549
5.733841 -7.826401 16.575790
5.730698 -7.832748 16.562149
5.721451 -7.851059 16.524643
5.690903 -7.823868 16.509018
5.790726 -7.798355 16.724136
5.787888 -7.804886 16.706619
5.785385 -7.811752 16.685928
5.805435 -7.770645 16.831100
5.755478 -7.795395 16.789474
5.807755 -7.834305 16.772537
5.814590 -7.830795 16.753586
5.795120 -7.784683 16.769150
5.791214 -7.790451 16.760818
5.938858 -7.758286 16.801804
